ply
format ascii 1.0
element vertex 1486
property float x
property float y
property float z
end_header
129.000000,180.000000,3.162278
130.000000,175.000000,3.605551
130.000000,176.000000,3.605551
130.000000,177.000000,3.605551
130.000000,178.000000,198.010101
130.000000,179.000000,198.010101
131.000000,175.000000,203.022166
131.000000,176.000000,2.236068
131.000000,177.000000,2.236068
131.000000,178.000000,2.236068
131.000000,179.000000,2.236068
131.000000,278.000000,99.020200
131.000000,279.000000,99.020200
131.000000,280.000000,105.004762
132.000000,278.000000,102.019606
132.000000,279.000000,102.019606
132.000000,280.000000,102.019606
132.000000,392.000000,213.009389
132.000000,393.000000,213.009389
132.000000,394.000000,219.002283
132.000000,395.000000,219.002283
133.000000,278.000000,101.019800
133.000000,279.000000,101.019800
133.000000,280.000000,101.019800
133.000000,391.000000,211.009478
133.000000,392.000000,113.017698
133.000000,393.000000,113.017698
133.000000,394.000000,113.017698
133.000000,395.000000,116.004310
134.000000,346.000000,66.030296
134.000000,347.000000,66.030296
134.000000,348.000000,46.043458
134.000000,390.000000,5.385165
134.000000,391.000000,5.385165
134.000000,392.000000,113.004425
134.000000,393.000000,113.004425
134.000000,394.000000,113.004425
134.000000,395.000000,2.236068
135.000000,159.000000,235.008510
135.000000,160.000000,235.008510
135.000000,161.000000,235.008510
135.000000,162.000000,229.002183
135.000000,163.000000,229.002183
135.000000,346.000000,47.010637
135.000000,347.000000,47.010637
135.000000,348.000000,47.010637
135.000000,349.000000,47.010637
135.000000,389.000000,230.000000
135.000000,390.000000,230.000000
135.000000,391.000000,230.000000
135.000000,392.000000,230.000000
135.000000,393.000000,230.000000
136.000000,159.000000,188.002660
136.000000,160.000000,188.002660
136.000000,161.000000,188.002660
136.000000,162.000000,188.002660
136.000000,163.000000,228.002193
136.000000,164.000000,228.002193
136.000000,165.000000,228.002193
136.000000,346.000000,48.010416
136.000000,347.000000,48.010416
136.000000,348.000000,48.010416
136.000000,349.000000,190.000000
136.000000,350.000000,190.000000
136.000000,351.000000,190.000000
136.000000,389.000000,227.000000
136.000000,390.000000,227.000000
136.000000,391.000000,227.000000
136.000000,392.000000,227.000000
137.000000,159.000000,188.002660
137.000000,160.000000,188.002660
137.000000,161.000000,188.002660
137.000000,162.000000,188.002660
137.000000,163.000000,188.002660
137.000000,164.000000,188.002660
137.000000,165.000000,225.002222
137.000000,166.000000,225.002222
137.000000,346.000000,46.010868
137.000000,347.000000,46.010868
137.000000,348.000000,46.010868
137.000000,349.000000,46.010868
137.000000,350.000000,191.000000
137.000000,351.000000,191.000000
137.000000,352.000000,191.000000
137.000000,381.000000,219.000000
137.000000,382.000000,219.000000
137.000000,383.000000,219.000000
137.000000,389.000000,224.000000
137.000000,390.000000,224.000000
137.000000,391.000000,44.000000
137.000000,392.000000,44.000000
138.000000,160.000000,189.002645
138.000000,161.000000,189.002645
138.000000,162.000000,189.002645
138.000000,163.000000,189.002645
138.000000,164.000000,189.002645
138.000000,165.000000,217.002304
138.000000,166.000000,217.002304
138.000000,347.000000,37.013511
138.000000,348.000000,42.011903
138.000000,349.000000,42.011903
138.000000,350.000000,42.011903
138.000000,351.000000,42.011903
138.000000,352.000000,42.011903
138.000000,380.000000,15.033296
138.000000,381.000000,220.000000
138.000000,382.000000,220.000000
138.000000,383.000000,220.000000
138.000000,389.000000,225.000000
138.000000,390.000000,225.000000
138.000000,391.000000,225.000000
138.000000,392.000000,44.000000
139.000000,162.000000,187.002674
139.000000,163.000000,187.002674
139.000000,164.000000,187.002674
139.000000,165.000000,187.002674
139.000000,166.000000,187.002674
139.000000,167.000000,215.002326
139.000000,348.000000,35.014283
139.000000,349.000000,35.014283
139.000000,350.000000,40.012498
139.000000,351.000000,40.012498
139.000000,352.000000,40.012498
139.000000,353.000000,40.012498
139.000000,380.000000,217.000000
139.000000,381.000000,217.000000
139.000000,382.000000,217.000000
139.000000,383.000000,217.000000
139.000000,389.000000,222.000000
139.000000,390.000000,41.000000
139.000000,391.000000,41.000000
139.000000,392.000000,41.000000
140.000000,163.000000,189.002645
140.000000,164.000000,189.002645
140.000000,165.000000,189.002645
140.000000,166.000000,216.002315
140.000000,167.000000,216.002315
140.000000,168.000000,216.002315
140.000000,169.000000,221.002262
140.000000,349.000000,42.011903
140.000000,350.000000,42.011903
140.000000,351.000000,42.011903
140.000000,352.000000,188.000000
140.000000,353.000000,188.000000
140.000000,354.000000,188.000000
140.000000,380.000000,213.000000
140.000000,381.000000,213.000000
140.000000,382.000000,213.000000
140.000000,383.000000,213.000000
141.000000,164.000000,186.002688
141.000000,165.000000,186.002688
141.000000,166.000000,186.002688
141.000000,167.000000,186.002688
141.000000,168.000000,186.002688
141.000000,169.000000,186.002688
141.000000,350.000000,32.015621
141.000000,351.000000,32.015621
141.000000,352.000000,32.015621
141.000000,353.000000,37.013511
141.000000,354.000000,37.013511
141.000000,380.000000,12.041595
141.000000,381.000000,12.041595
141.000000,382.000000,218.000000
141.000000,383.000000,218.000000
142.000000,164.000000,2.236068
142.000000,165.000000,2.236068
142.000000,166.000000,2.236068
142.000000,167.000000,2.236068
142.000000,168.000000,2.236068
142.000000,169.000000,182.002747
142.000000,351.000000,1.414214
142.000000,352.000000,1.414214
142.000000,353.000000,1.414214
142.000000,354.000000,1.414214
142.000000,380.000000,1.414214
142.000000,381.000000,1.414214
142.000000,382.000000,1.414214
142.000000,383.000000,1.414214
143.000000,166.000000,1.414214
143.000000,167.000000,1.414214
143.000000,168.000000,1.414214
143.000000,381.000000,213.002347
143.000000,382.000000,213.002347
143.000000,383.000000,213.002347
143.000000,407.000000,55.009090
143.000000,408.000000,55.009090
143.000000,409.000000,55.009090
144.000000,407.000000,52.038447
144.000000,408.000000,27.073973
144.000000,409.000000,27.073973
145.000000,405.000000,22.203603
145.000000,406.000000,22.203603
145.000000,407.000000,241.008299
145.000000,408.000000,241.008299
145.000000,409.000000,241.008299
146.000000,404.000000,23.194827
146.000000,405.000000,23.194827
146.000000,406.000000,23.194827
146.000000,407.000000,23.194827
147.000000,404.000000,4.242641
147.000000,405.000000,4.242641
147.000000,406.000000,4.242641
147.000000,407.000000,2.000000
148.000000,396.000000,12.369317
148.000000,397.000000,12.369317
148.000000,398.000000,7.280110
148.000000,404.000000,2.828427
148.000000,405.000000,2.828427
148.000000,406.000000,2.828427
148.000000,407.000000,2.828427
149.000000,396.000000,9.219544
149.000000,397.000000,9.219544
149.000000,398.000000,9.219544
149.000000,404.000000,4.472136
149.000000,405.000000,1.000000
149.000000,406.000000,1.000000
149.000000,407.000000,1.000000
149.000000,408.000000,1.000000
149.000000,409.000000,12.000000
149.000000,410.000000,12.000000
150.000000,396.000000,3.162278
150.000000,397.000000,8.062258
150.000000,398.000000,8.062258
150.000000,404.000000,3.162278
150.000000,405.000000,3.162278
150.000000,406.000000,10.000000
150.000000,407.000000,10.000000
150.000000,408.000000,10.000000
150.000000,409.000000,10.000000
150.000000,410.000000,5.000000
150.000000,414.000000,8.000000
150.000000,415.000000,8.000000
150.000000,416.000000,8.000000
150.000000,417.000000,8.000000
150.000000,418.000000,8.000000
150.000000,419.000000,8.000000
151.000000,396.000000,0.000000
151.000000,397.000000,0.000000
151.000000,398.000000,0.000000
151.000000,405.000000,6.000000
151.000000,406.000000,1.000000
151.000000,407.000000,1.000000
151.000000,408.000000,1.000000
151.000000,409.000000,1.000000
151.000000,410.000000,1.000000
151.000000,412.000000,2.000000
151.000000,413.000000,2.000000
151.000000,414.000000,1.000000
151.000000,415.000000,1.000000
151.000000,416.000000,1.000000
151.000000,417.000000,1.000000
151.000000,418.000000,1.000000
151.000000,419.000000,250.002000
152.000000,168.000000,2.000000
152.000000,169.000000,2.000000
152.000000,170.000000,2.000000
152.000000,171.000000,225.000000
152.000000,172.000000,225.000000
152.000000,396.000000,2.000000
152.000000,397.000000,2.000000
152.000000,398.000000,11.000000
152.000000,408.000000,2.000000
152.000000,409.000000,2.000000
152.000000,410.000000,3.000000
152.000000,411.000000,3.000000
152.000000,412.000000,3.000000
152.000000,413.000000,3.000000
152.000000,414.000000,3.000000
152.000000,415.000000,3.000000
152.000000,416.000000,3.000000
152.000000,417.000000,248.002016
152.000000,418.000000,248.002016
152.000000,419.000000,248.002016
153.000000,168.000000,4.000000
153.000000,169.000000,4.000000
153.000000,170.000000,227.000000
153.000000,171.000000,227.000000
153.000000,172.000000,227.000000
153.000000,396.000000,13.000000
153.000000,397.000000,13.000000
153.000000,398.000000,13.000000
153.000000,410.000000,2.000000
153.000000,411.000000,2.000000
153.000000,412.000000,2.000000
153.000000,413.000000,2.000000
153.000000,414.000000,2.000000
153.000000,415.000000,2.000000
153.000000,416.000000,2.000000
153.000000,417.000000,2.000000
153.000000,418.000000,249.002008
153.000000,419.000000,249.002008
154.000000,168.000000,3.000000
154.000000,169.000000,3.000000
154.000000,170.000000,3.000000
154.000000,171.000000,226.000000
154.000000,172.000000,226.000000
154.000000,173.000000,226.000000
154.000000,396.000000,15.000000
154.000000,397.000000,15.000000
154.000000,398.000000,15.000000
154.000000,410.000000,4.000000
154.000000,411.000000,4.000000
154.000000,412.000000,4.000000
154.000000,413.000000,4.000000
155.000000,169.000000,249.002008
155.000000,170.000000,249.002008
155.000000,171.000000,2.000000
155.000000,172.000000,2.000000
155.000000,173.000000,2.000000
155.000000,421.000000,249.000000
155.000000,422.000000,249.000000
155.000000,423.000000,26.000000
155.000000,424.000000,26.000000
156.000000,170.000000,229.002183
156.000000,171.000000,240.002083
156.000000,172.000000,240.002083
156.000000,173.000000,240.002083
156.000000,410.000000,4.123106
156.000000,411.000000,4.123106
156.000000,412.000000,11.045361
156.000000,420.000000,4.123106
156.000000,421.000000,4.123106
156.000000,422.000000,252.000000
156.000000,423.000000,252.000000
156.000000,424.000000,252.000000
157.000000,171.000000,2.236068
157.000000,172.000000,250.002000
157.000000,173.000000,250.002000
157.000000,356.000000,68.007353
157.000000,357.000000,68.007353
157.000000,358.000000,187.000000
157.000000,359.000000,187.000000
157.000000,410.000000,237.000000
157.000000,411.000000,1.000000
157.000000,412.000000,1.000000
157.000000,420.000000,8.000000
157.000000,421.000000,8.000000
157.000000,422.000000,1.000000
157.000000,423.000000,1.000000
157.000000,424.000000,1.000000
158.000000,353.000000,71.007042
158.000000,354.000000,71.007042
158.000000,355.000000,1.000000
158.000000,356.000000,1.000000
158.000000,357.000000,1.000000
158.000000,358.000000,1.000000
158.000000,359.000000,1.000000
158.000000,360.000000,1.000000
158.000000,410.000000,50.000000
158.000000,411.000000,50.000000
158.000000,412.000000,2.000000
158.000000,419.000000,8.000000
158.000000,420.000000,8.000000
158.000000,421.000000,8.000000
158.000000,422.000000,2.000000
158.000000,423.000000,2.000000
159.000000,353.000000,69.007246
159.000000,354.000000,69.007246
159.000000,355.000000,69.007246
159.000000,356.000000,69.007246
159.000000,357.000000,3.000000
159.000000,358.000000,3.000000
159.000000,359.000000,3.000000
159.000000,360.000000,3.000000
159.000000,419.000000,61.000000
159.000000,420.000000,61.000000
159.000000,421.000000,61.000000
159.000000,422.000000,61.000000
159.000000,423.000000,13.000000
160.000000,353.000000,58.008620
160.000000,354.000000,58.008620
160.000000,355.000000,58.008620
160.000000,356.000000,64.007812
160.000000,357.000000,64.007812
160.000000,358.000000,64.007812
160.000000,359.000000,64.007812
160.000000,360.000000,64.007812
160.000000,410.000000,56.000000
160.000000,411.000000,56.000000
160.000000,412.000000,56.000000
160.000000,413.000000,56.000000
160.000000,419.000000,61.000000
160.000000,420.000000,61.000000
160.000000,421.000000,61.000000
160.000000,422.000000,61.000000
161.000000,410.000000,2.236068
161.000000,411.000000,2.236068
161.000000,412.000000,2.236068
161.000000,413.000000,7.071068
161.000000,419.000000,2.236068
161.000000,420.000000,2.236068
161.000000,421.000000,2.236068
161.000000,422.000000,65.000000
162.000000,153.000000,205.002439
162.000000,154.000000,205.002439
162.000000,155.000000,205.002439
162.000000,156.000000,256.001953
162.000000,410.000000,3.162278
162.000000,411.000000,3.162278
162.000000,412.000000,8.062258
162.000000,413.000000,8.062258
162.000000,419.000000,3.162278
162.000000,420.000000,3.162278
162.000000,421.000000,268.000000
162.000000,422.000000,268.000000
163.000000,153.000000,2.236068
163.000000,154.000000,2.236068
163.000000,155.000000,2.236068
163.000000,156.000000,255.001961
163.000000,157.000000,255.001961
163.000000,158.000000,255.001961
163.000000,410.000000,4.123106
163.000000,411.000000,9.055385
163.000000,412.000000,9.055385
163.000000,413.000000,9.055385
164.000000,153.000000,270.007407
164.000000,154.000000,1.414214
164.000000,155.000000,1.414214
164.000000,156.000000,1.414214
164.000000,157.000000,1.414214
164.000000,158.000000,1.414214
164.000000,159.000000,1.414214
164.000000,338.000000,73.006849
164.000000,339.000000,73.006849
164.000000,340.000000,73.006849
164.000000,341.000000,73.006849
164.000000,342.000000,78.006410
164.000000,411.000000,10.049876
164.000000,412.000000,10.049876
164.000000,413.000000,10.049876
165.000000,154.000000,1.414214
165.000000,155.000000,1.414214
165.000000,156.000000,1.414214
165.000000,157.000000,1.414214
165.000000,158.000000,1.414214
165.000000,159.000000,1.414214
165.000000,338.000000,179.002793
165.000000,339.000000,1.000000
165.000000,340.000000,1.000000
165.000000,341.000000,1.000000
165.000000,342.000000,1.000000
165.000000,343.000000,1.000000
165.000000,344.000000,67.007462
165.000000,411.000000,1.414214
165.000000,412.000000,1.414214
165.000000,413.000000,1.414214
165.000000,437.000000,283.000000
165.000000,438.000000,283.000000
165.000000,439.000000,283.000000
166.000000,155.000000,2.236068
166.000000,156.000000,2.236068
166.000000,157.000000,2.236068
166.000000,158.000000,2.236068
166.000000,159.000000,180.002778
166.000000,160.000000,180.002778
166.000000,162.000000,179.002793
166.000000,163.000000,179.002793
166.000000,164.000000,179.002793
166.000000,294.000000,50.009999
166.000000,295.000000,50.009999
166.000000,296.000000,115.004348
166.000000,338.000000,74.006756
166.000000,339.000000,74.006756
166.000000,340.000000,184.000000
166.000000,341.000000,184.000000
166.000000,342.000000,184.000000
166.000000,343.000000,184.000000
166.000000,344.000000,184.000000
166.000000,345.000000,183.000000
166.000000,437.000000,274.000000
166.000000,438.000000,274.000000
166.000000,439.000000,274.000000
167.000000,156.000000,139.003597
167.000000,157.000000,139.003597
167.000000,158.000000,139.003597
167.000000,159.000000,180.002778
167.000000,160.000000,180.002778
167.000000,161.000000,180.002778
167.000000,162.000000,180.002778
167.000000,163.000000,180.002778
167.000000,164.000000,180.002778
167.000000,294.000000,51.009803
167.000000,295.000000,51.009803
167.000000,296.000000,115.004348
167.000000,297.000000,115.004348
167.000000,340.000000,73.006849
167.000000,341.000000,185.000000
167.000000,342.000000,185.000000
167.000000,343.000000,185.000000
167.000000,344.000000,185.000000
167.000000,345.000000,185.000000
167.000000,435.000000,274.000000
167.000000,436.000000,274.000000
167.000000,437.000000,274.000000
167.000000,438.000000,274.000000
167.000000,439.000000,274.000000
168.000000,157.000000,138.003623
168.000000,158.000000,138.003623
168.000000,159.000000,138.003623
168.000000,160.000000,138.003623
168.000000,161.000000,179.002793
168.000000,162.000000,179.002793
168.000000,163.000000,179.002793
168.000000,164.000000,179.002793
168.000000,294.000000,50.009999
168.000000,295.000000,50.009999
168.000000,296.000000,50.009999
168.000000,297.000000,140.003571
168.000000,341.000000,97.005155
168.000000,342.000000,97.005155
168.000000,343.000000,97.005155
168.000000,344.000000,187.000000
168.000000,345.000000,187.000000
168.000000,346.000000,187.000000
168.000000,434.000000,274.000000
168.000000,435.000000,274.000000
168.000000,436.000000,274.000000
168.000000,437.000000,274.000000
168.000000,438.000000,274.000000
169.000000,157.000000,8.062258
169.000000,158.000000,137.003650
169.000000,159.000000,137.003650
169.000000,160.000000,137.003650
169.000000,161.000000,137.003650
169.000000,162.000000,180.002778
169.000000,163.000000,180.002778
169.000000,294.000000,50.009999
169.000000,295.000000,50.009999
169.000000,296.000000,50.009999
169.000000,297.000000,50.009999
169.000000,342.000000,94.005319
169.000000,343.000000,94.005319
169.000000,344.000000,94.005319
169.000000,345.000000,94.005319
169.000000,346.000000,94.005319
169.000000,347.000000,189.000000
169.000000,392.000000,233.000000
169.000000,393.000000,233.000000
169.000000,394.000000,233.000000
169.000000,395.000000,233.000000
169.000000,396.000000,233.000000
169.000000,434.000000,270.000000
169.000000,435.000000,140.000000
169.000000,436.000000,140.000000
169.000000,437.000000,140.000000
169.000000,438.000000,140.000000
170.000000,343.000000,1.000000
170.000000,344.000000,1.000000
170.000000,345.000000,1.000000
170.000000,346.000000,1.000000
170.000000,347.000000,1.000000
170.000000,392.000000,44.011362
170.000000,393.000000,1.414214
170.000000,394.000000,1.414214
170.000000,395.000000,1.414214
170.000000,396.000000,39.012818
170.000000,434.000000,2.236068
170.000000,435.000000,2.236068
170.000000,436.000000,2.236068
170.000000,437.000000,2.236068
170.000000,438.000000,2.236068
171.000000,344.000000,1.000000
171.000000,345.000000,1.000000
171.000000,346.000000,1.000000
171.000000,347.000000,1.000000
171.000000,392.000000,44.011362
171.000000,393.000000,1.000000
171.000000,394.000000,1.000000
171.000000,395.000000,1.000000
171.000000,396.000000,1.000000
171.000000,426.000000,29.017236
171.000000,427.000000,8.062258
171.000000,428.000000,8.062258
171.000000,434.000000,3.162278
171.000000,435.000000,3.162278
171.000000,436.000000,3.162278
171.000000,437.000000,92.000000
172.000000,426.000000,80.006250
172.000000,427.000000,80.006250
172.000000,428.000000,80.006250
172.000000,434.000000,41.012193
172.000000,435.000000,41.012193
172.000000,436.000000,41.012193
172.000000,437.000000,41.012193
173.000000,426.000000,29.068884
173.000000,427.000000,8.246211
173.000000,428.000000,8.246211
173.000000,434.000000,3.605551
173.000000,435.000000,3.605551
173.000000,436.000000,3.605551
173.000000,437.000000,277.001805
174.000000,425.000000,264.007576
174.000000,426.000000,264.007576
174.000000,427.000000,34.058773
174.000000,428.000000,34.058773
174.000000,434.000000,39.051248
174.000000,435.000000,39.051248
174.000000,436.000000,39.051248
175.000000,425.000000,3.162278
175.000000,426.000000,3.162278
175.000000,427.000000,3.162278
175.000000,428.000000,3.162278
176.000000,425.000000,10.770330
176.000000,426.000000,10.770330
176.000000,427.000000,10.770330
176.000000,428.000000,268.016791
176.000000,452.000000,291.015464
176.000000,453.000000,291.015464
176.000000,454.000000,28.160256
177.000000,386.000000,41.194660
177.000000,387.000000,41.194660
177.000000,388.000000,41.194660
177.000000,425.000000,10.770330
177.000000,426.000000,10.770330
177.000000,427.000000,10.770330
177.000000,428.000000,268.016791
177.000000,451.000000,290.015517
177.000000,452.000000,290.015517
177.000000,453.000000,27.166155
177.000000,454.000000,27.166155
178.000000,386.000000,42.190046
178.000000,387.000000,42.190046
178.000000,388.000000,47.169906
178.000000,389.000000,47.169906
178.000000,451.000000,14.560220
178.000000,452.000000,26.172505
178.000000,453.000000,26.172505
178.000000,454.000000,26.172505
179.000000,161.000000,268.029849
179.000000,162.000000,273.029302
179.000000,163.000000,273.029302
179.000000,386.000000,51.156622
179.000000,387.000000,39.115214
179.000000,388.000000,39.115214
179.000000,389.000000,39.115214
179.000000,449.000000,20.223748
179.000000,450.000000,24.083189
179.000000,451.000000,24.083189
179.000000,452.000000,24.083189
179.000000,453.000000,66.007575
179.000000,454.000000,66.007575
180.000000,160.000000,229.008733
180.000000,161.000000,265.007547
180.000000,162.000000,265.007547
180.000000,163.000000,265.007547
180.000000,164.000000,288.006944
180.000000,386.000000,67.029844
180.000000,387.000000,67.029844
180.000000,388.000000,227.002203
180.000000,389.000000,227.002203
180.000000,448.000000,285.001754
180.000000,449.000000,63.007936
180.000000,450.000000,63.007936
180.000000,451.000000,63.007936
180.000000,452.000000,63.007936
180.000000,453.000000,1.414214
180.000000,454.000000,1.414214
181.000000,160.000000,294.006803
181.000000,161.000000,1.414214
181.000000,162.000000,1.414214
181.000000,163.000000,1.414214
181.000000,164.000000,1.414214
181.000000,165.000000,1.414214
181.000000,381.000000,5.099020
181.000000,382.000000,5.099020
181.000000,383.000000,5.099020
181.000000,384.000000,5.099020
181.000000,385.000000,65.007692
181.000000,386.000000,65.007692
181.000000,387.000000,65.007692
181.000000,388.000000,65.007692
181.000000,448.000000,6.082763
181.000000,449.000000,289.000000
181.000000,450.000000,289.000000
181.000000,451.000000,289.000000
181.000000,452.000000,289.000000
181.000000,453.000000,289.000000
181.000000,454.000000,289.000000
182.000000,160.000000,226.002212
182.000000,161.000000,226.002212
182.000000,162.000000,226.002212
182.000000,163.000000,226.002212
182.000000,164.000000,285.001754
182.000000,165.000000,285.001754
182.000000,381.000000,70.007142
182.000000,382.000000,70.007142
182.000000,383.000000,70.007142
182.000000,384.000000,70.007142
182.000000,385.000000,225.000000
182.000000,386.000000,225.000000
182.000000,387.000000,225.000000
182.000000,388.000000,225.000000
182.000000,440.000000,276.000000
182.000000,441.000000,276.000000
182.000000,442.000000,60.000000
182.000000,443.000000,60.000000
182.000000,448.000000,64.000000
182.000000,449.000000,64.000000
182.000000,450.000000,64.000000
182.000000,451.000000,64.000000
182.000000,452.000000,64.000000
183.000000,161.000000,228.002193
183.000000,162.000000,287.001742
183.000000,163.000000,287.001742
183.000000,164.000000,287.001742
183.000000,165.000000,287.001742
183.000000,381.000000,72.006944
183.000000,382.000000,72.006944
183.000000,383.000000,222.000000
183.000000,384.000000,222.000000
183.000000,385.000000,222.000000
183.000000,386.000000,222.000000
183.000000,387.000000,222.000000
183.000000,388.000000,6.000000
183.000000,440.000000,57.000000
183.000000,441.000000,57.000000
183.000000,442.000000,57.000000
183.000000,443.000000,57.000000
183.000000,448.000000,61.000000
183.000000,449.000000,61.000000
183.000000,450.000000,61.000000
183.000000,451.000000,10.000000
183.000000,452.000000,10.000000
184.000000,350.000000,93.005376
184.000000,351.000000,98.005102
184.000000,352.000000,98.005102
184.000000,371.000000,80.006250
184.000000,372.000000,80.006250
184.000000,373.000000,80.006250
184.000000,374.000000,80.006250
184.000000,375.000000,213.000000
184.000000,382.000000,219.000000
184.000000,383.000000,219.000000
184.000000,384.000000,33.000000
184.000000,385.000000,33.000000
184.000000,386.000000,33.000000
184.000000,387.000000,5.000000
184.000000,388.000000,5.000000
184.000000,440.000000,56.000000
184.000000,441.000000,56.000000
184.000000,442.000000,56.000000
184.000000,443.000000,56.000000
184.000000,449.000000,61.000000
184.000000,450.000000,61.000000
184.000000,451.000000,10.000000
184.000000,452.000000,10.000000
185.000000,346.000000,97.005155
185.000000,347.000000,102.004902
185.000000,348.000000,102.004902
185.000000,349.000000,102.004902
185.000000,350.000000,102.004902
185.000000,351.000000,3.000000
185.000000,352.000000,3.000000
185.000000,371.000000,21.000000
185.000000,372.000000,21.000000
185.000000,373.000000,21.000000
185.000000,374.000000,21.000000
185.000000,375.000000,3.000000
185.000000,382.000000,9.000000
185.000000,383.000000,9.000000
185.000000,384.000000,9.000000
185.000000,387.000000,11.000000
185.000000,388.000000,6.000000
185.000000,389.000000,6.000000
185.000000,440.000000,56.000000
185.000000,441.000000,56.000000
185.000000,442.000000,56.000000
186.000000,346.000000,41.012193
186.000000,347.000000,41.012193
186.000000,348.000000,41.012193
186.000000,349.000000,92.005435
186.000000,350.000000,92.005435
186.000000,351.000000,92.005435
186.000000,352.000000,97.005155
186.000000,371.000000,79.006329
186.000000,372.000000,79.006329
186.000000,373.000000,79.006329
186.000000,374.000000,26.000000
186.000000,375.000000,26.000000
186.000000,385.000000,35.000000
186.000000,386.000000,35.000000
186.000000,387.000000,35.000000
186.000000,388.000000,35.000000
186.000000,389.000000,17.000000
186.000000,440.000000,67.000000
186.000000,441.000000,67.000000
186.000000,442.000000,67.000000
187.000000,346.000000,30.016662
187.000000,347.000000,36.013886
187.000000,348.000000,36.013886
187.000000,349.000000,36.013886
187.000000,350.000000,37.013511
187.000000,351.000000,37.013511
187.000000,352.000000,37.013511
187.000000,371.000000,19.026298
187.000000,372.000000,69.007246
187.000000,373.000000,69.007246
187.000000,374.000000,69.007246
187.000000,375.000000,27.000000
187.000000,382.000000,33.000000
187.000000,383.000000,33.000000
187.000000,384.000000,33.000000
187.000000,385.000000,33.000000
187.000000,386.000000,33.000000
187.000000,387.000000,15.000000
187.000000,388.000000,15.000000
187.000000,389.000000,15.000000
187.000000,440.000000,65.000000
187.000000,441.000000,65.000000
187.000000,442.000000,56.000000
188.000000,348.000000,39.012818
188.000000,349.000000,39.012818
188.000000,350.000000,39.012818
188.000000,351.000000,39.012818
188.000000,352.000000,89.005618
188.000000,382.000000,60.008333
188.000000,383.000000,60.008333
188.000000,384.000000,36.000000
188.000000,385.000000,36.000000
188.000000,386.000000,36.000000
188.000000,387.000000,36.000000
188.000000,388.000000,36.000000
188.000000,389.000000,36.000000
188.000000,467.000000,84.000000
188.000000,468.000000,84.000000
188.000000,469.000000,84.000000
189.000000,145.000000,241.002075
189.000000,146.000000,241.002075
189.000000,147.000000,241.002075
189.000000,148.000000,241.002075
189.000000,382.000000,8.062258
189.000000,383.000000,58.008620
189.000000,384.000000,58.008620
189.000000,385.000000,58.008620
189.000000,386.000000,241.000000
189.000000,387.000000,241.000000
189.000000,467.000000,320.000000
189.000000,468.000000,320.000000
189.000000,469.000000,86.000000
190.000000,145.000000,239.002092
190.000000,146.000000,239.002092
190.000000,147.000000,239.002092
190.000000,148.000000,239.002092
190.000000,149.000000,239.002092
190.000000,150.000000,239.002092
190.000000,383.000000,7.071068
190.000000,384.000000,57.008771
190.000000,385.000000,57.008771
190.000000,386.000000,57.008771
190.000000,387.000000,242.000000
190.000000,464.000000,318.000000
190.000000,465.000000,318.000000
190.000000,466.000000,318.000000
190.000000,467.000000,318.000000
190.000000,468.000000,318.000000
190.000000,469.000000,86.000000
191.000000,145.000000,239.002092
191.000000,146.000000,239.002092
191.000000,147.000000,239.002092
191.000000,148.000000,239.002092
191.000000,149.000000,239.002092
191.000000,150.000000,317.001577
191.000000,151.000000,317.001577
191.000000,331.000000,138.003623
191.000000,332.000000,187.000000
191.000000,333.000000,187.000000
191.000000,334.000000,187.000000
191.000000,383.000000,235.000000
191.000000,384.000000,235.000000
191.000000,385.000000,235.000000
191.000000,464.000000,313.000000
191.000000,465.000000,133.000000
191.000000,466.000000,133.000000
191.000000,467.000000,133.000000
192.000000,145.000000,190.002632
192.000000,146.000000,238.002101
192.000000,147.000000,238.002101
192.000000,148.000000,238.002101
192.000000,149.000000,318.001572
192.000000,150.000000,318.001572
192.000000,151.000000,318.001572
192.000000,152.000000,7.000000
192.000000,331.000000,185.000000
192.000000,332.000000,185.000000
192.000000,333.000000,185.000000
192.000000,334.000000,185.000000
192.000000,335.000000,185.000000
192.000000,336.000000,185.000000
192.000000,464.000000,312.000000
192.000000,465.000000,133.000000
192.000000,466.000000,133.000000
192.000000,467.000000,133.000000
193.000000,148.000000,187.002674
193.000000,149.000000,187.002674
193.000000,150.000000,187.002674
193.000000,151.000000,313.001597
193.000000,152.000000,313.001597
193.000000,153.000000,313.001597
193.000000,331.000000,136.003676
193.000000,332.000000,136.003676
193.000000,333.000000,136.003676
193.000000,334.000000,186.000000
193.000000,335.000000,186.000000
193.000000,336.000000,186.000000
193.000000,337.000000,186.000000
193.000000,365.000000,213.000000
193.000000,366.000000,213.000000
193.000000,367.000000,35.000000
193.000000,368.000000,35.000000
193.000000,455.000000,121.000000
193.000000,456.000000,121.000000
193.000000,457.000000,121.000000
193.000000,464.000000,127.000000
193.000000,465.000000,127.000000
193.000000,466.000000,100.000000
193.000000,467.000000,100.000000
194.000000,149.000000,219.002283
194.000000,150.000000,314.001592
194.000000,151.000000,314.001592
194.000000,152.000000,314.001592
194.000000,153.000000,314.001592
194.000000,331.000000,137.003650
194.000000,332.000000,183.000000
194.000000,333.000000,183.000000
194.000000,334.000000,183.000000
194.000000,335.000000,183.000000
194.000000,336.000000,183.000000
194.000000,337.000000,183.000000
194.000000,338.000000,6.000000
194.000000,365.000000,32.000000
194.000000,366.000000,32.000000
194.000000,367.000000,32.000000
194.000000,368.000000,32.000000
194.000000,455.000000,118.000000
194.000000,456.000000,118.000000
194.000000,457.000000,118.000000
194.000000,464.000000,98.000000
194.000000,465.000000,98.000000
194.000000,466.000000,98.000000
195.000000,149.000000,220.002273
195.000000,150.000000,314.001592
195.000000,151.000000,314.001592
195.000000,152.000000,314.001592
195.000000,153.000000,314.001592
195.000000,154.000000,314.001592
195.000000,334.000000,184.000000
195.000000,335.000000,184.000000
195.000000,336.000000,184.000000
195.000000,337.000000,184.000000
195.000000,338.000000,184.000000
195.000000,365.000000,30.000000
195.000000,366.000000,30.000000
195.000000,367.000000,30.000000
195.000000,368.000000,30.000000
195.000000,386.000000,47.000000
195.000000,387.000000,22.000000
195.000000,388.000000,22.000000
195.000000,389.000000,22.000000
195.000000,455.000000,87.000000
195.000000,456.000000,87.000000
195.000000,457.000000,70.000000
195.000000,464.000000,76.000000
195.000000,465.000000,76.000000
195.000000,466.000000,76.000000
196.000000,150.000000,306.001634
196.000000,151.000000,306.001634
196.000000,152.000000,306.001634
196.000000,153.000000,311.001608
196.000000,154.000000,311.001608
196.000000,334.000000,132.003788
196.000000,335.000000,132.003788
196.000000,336.000000,186.000000
196.000000,337.000000,186.000000
196.000000,338.000000,186.000000
196.000000,339.000000,186.000000
196.000000,365.000000,211.000000
196.000000,366.000000,31.000000
196.000000,367.000000,31.000000
196.000000,368.000000,31.000000
196.000000,385.000000,47.000000
196.000000,386.000000,47.000000
196.000000,387.000000,47.000000
196.000000,388.000000,23.000000
196.000000,389.000000,23.000000
196.000000,455.000000,88.000000
196.000000,456.000000,88.000000
196.000000,457.000000,88.000000
196.000000,464.000000,77.000000
196.000000,465.000000,77.000000
196.000000,466.000000,77.000000
197.000000,150.000000,240.002083
197.000000,151.000000,304.001645
197.000000,152.000000,304.001645
197.000000,153.000000,304.001645
197.000000,154.000000,304.001645
197.000000,335.000000,129.003876
197.000000,336.000000,129.003876
197.000000,337.000000,129.003876
197.000000,338.000000,129.003876
197.000000,339.000000,188.000000
197.000000,360.000000,208.000000
197.000000,361.000000,208.000000
197.000000,362.000000,208.000000
197.000000,363.000000,27.000000
197.000000,364.000000,27.000000
197.000000,365.000000,27.000000
197.000000,366.000000,27.000000
197.000000,367.000000,27.000000
197.000000,385.000000,44.000000
197.000000,386.000000,24.000000
197.000000,387.000000,24.000000
197.000000,388.000000,24.000000
197.000000,389.000000,24.000000
197.000000,455.000000,89.000000
197.000000,456.000000,89.000000
197.000000,457.000000,89.000000
198.000000,336.000000,50.009999
198.000000,337.000000,50.009999
198.000000,338.000000,50.009999
198.000000,339.000000,50.009999
198.000000,360.000000,30.016662
198.000000,361.000000,94.005319
198.000000,362.000000,94.005319
198.000000,363.000000,94.005319
198.000000,364.000000,94.005319
198.000000,365.000000,99.005050
198.000000,366.000000,99.005050
198.000000,367.000000,99.005050
198.000000,368.000000,99.005050
198.000000,385.000000,48.000000
198.000000,386.000000,48.000000
198.000000,387.000000,48.000000
198.000000,455.000000,115.000000
198.000000,456.000000,115.000000
198.000000,457.000000,96.000000
199.000000,337.000000,25.019992
199.000000,338.000000,25.019992
199.000000,339.000000,25.019992
199.000000,360.000000,5.099020
199.000000,361.000000,5.099020
199.000000,362.000000,24.020824
199.000000,363.000000,24.020824
199.000000,364.000000,24.020824
199.000000,365.000000,24.020824
199.000000,366.000000,24.020824
199.000000,367.000000,52.009614
199.000000,368.000000,52.009614
199.000000,385.000000,36.013886
199.000000,386.000000,69.007246
199.000000,387.000000,69.007246
200.000000,361.000000,96.020831
200.000000,362.000000,96.020831
200.000000,363.000000,101.019800
200.000000,364.000000,101.019800
200.000000,365.000000,101.019800
200.000000,366.000000,28.017851
200.000000,367.000000,28.017851
200.000000,368.000000,28.017851
200.000000,384.000000,43.011626
200.000000,385.000000,24.020824
200.000000,386.000000,24.020824
200.000000,387.000000,24.020824
201.000000,361.000000,3.605551
201.000000,362.000000,3.605551
201.000000,363.000000,3.605551
201.000000,364.000000,3.605551
201.000000,365.000000,3.605551
201.000000,366.000000,3.605551
201.000000,367.000000,19.104973
201.000000,368.000000,19.104973
201.000000,384.000000,4.472136
201.000000,385.000000,34.058773
201.000000,386.000000,34.058773
201.000000,387.000000,34.058773
202.000000,364.000000,91.049437
202.000000,365.000000,91.049437
202.000000,366.000000,91.049437
202.000000,384.000000,74.060786
202.000000,385.000000,24.083189
202.000000,386.000000,24.083189
202.000000,387.000000,24.083189
203.000000,362.000000,3.605551
203.000000,363.000000,3.605551
203.000000,364.000000,3.605551
203.000000,365.000000,3.605551
203.000000,366.000000,3.605551
203.000000,367.000000,3.605551
203.000000,384.000000,3.605551
203.000000,385.000000,3.605551
203.000000,386.000000,3.605551
204.000000,362.000000,57.140179
204.000000,363.000000,57.140179
204.000000,364.000000,57.140179
204.000000,365.000000,91.087870
204.000000,366.000000,91.087870
204.000000,367.000000,91.087870
204.000000,384.000000,22.203603
204.000000,385.000000,22.203603
204.000000,386.000000,22.203603
205.000000,362.000000,5.000000
205.000000,363.000000,5.000000
205.000000,364.000000,5.000000
205.000000,365.000000,5.000000
205.000000,366.000000,5.000000
205.000000,367.000000,18.439089
206.000000,154.000000,232.053873
206.000000,155.000000,232.053873
206.000000,156.000000,232.053873
206.000000,362.000000,4.000000
206.000000,363.000000,4.000000
206.000000,364.000000,4.000000
206.000000,365.000000,4.472136
206.000000,366.000000,4.472136
207.000000,153.000000,216.057863
207.000000,154.000000,231.054106
207.000000,155.000000,231.054106
207.000000,156.000000,231.054106
207.000000,157.000000,231.054106
207.000000,412.000000,47.169906
207.000000,413.000000,47.169906
207.000000,414.000000,47.169906
207.000000,415.000000,47.169906
208.000000,153.000000,216.057863
208.000000,154.000000,231.054106
208.000000,155.000000,231.054106
208.000000,156.000000,231.054106
208.000000,157.000000,231.054106
208.000000,158.000000,205.039021
208.000000,383.000000,19.416488
208.000000,384.000000,19.416488
208.000000,385.000000,19.416488
208.000000,412.000000,45.177428
208.000000,413.000000,45.177428
208.000000,414.000000,45.177428
208.000000,415.000000,30.265492
209.000000,153.000000,233.053642
209.000000,154.000000,233.053642
209.000000,155.000000,208.038458
209.000000,156.000000,208.038458
209.000000,157.000000,208.038458
209.000000,158.000000,208.038458
209.000000,382.000000,15.524175
209.000000,383.000000,229.019650
209.000000,384.000000,229.019650
209.000000,385.000000,229.019650
209.000000,412.000000,49.091751
209.000000,413.000000,49.091751
209.000000,414.000000,49.091751
209.000000,415.000000,49.091751
210.000000,153.000000,214.037380
210.000000,154.000000,3.162278
210.000000,155.000000,3.162278
210.000000,156.000000,3.162278
210.000000,157.000000,3.162278
210.000000,158.000000,3.162278
210.000000,365.000000,3.605551
210.000000,366.000000,3.605551
210.000000,367.000000,3.605551
210.000000,368.000000,215.009302
210.000000,382.000000,228.008772
210.000000,383.000000,228.008772
210.000000,384.000000,228.008772
210.000000,385.000000,228.008772
210.000000,412.000000,254.007874
210.000000,413.000000,2.000000
210.000000,414.000000,2.000000
210.000000,415.000000,2.000000
211.000000,153.000000,2.000000
211.000000,154.000000,2.000000
211.000000,155.000000,2.000000
211.000000,365.000000,209.009569
211.000000,366.000000,209.009569
211.000000,367.000000,209.009569
211.000000,368.000000,15.132746
211.000000,382.000000,2.828427
211.000000,383.000000,2.828427
211.000000,384.000000,28.071338
211.000000,412.000000,2.236068
211.000000,413.000000,2.236068
211.000000,414.000000,2.236068
211.000000,415.000000,262.001908
211.000000,485.000000,331.001511
211.000000,486.000000,331.001511
211.000000,487.000000,331.001511
212.000000,153.000000,4.472136
212.000000,154.000000,4.472136
212.000000,155.000000,228.008772
212.000000,364.000000,20.099751
212.000000,365.000000,20.099751
212.000000,366.000000,46.043458
212.000000,367.000000,46.043458
212.000000,368.000000,46.043458
212.000000,406.000000,9.219544
212.000000,407.000000,252.001984
212.000000,408.000000,252.001984
212.000000,409.000000,252.001984
212.000000,485.000000,119.004202
212.000000,486.000000,119.004202
212.000000,487.000000,119.004202
212.000000,488.000000,119.004202
213.000000,340.000000,43.046487
213.000000,341.000000,43.046487
213.000000,342.000000,43.046487
213.000000,343.000000,69.028979
213.000000,344.000000,69.028979
213.000000,345.000000,69.028979
213.000000,364.000000,51.039201
213.000000,365.000000,1.414214
213.000000,366.000000,1.414214
213.000000,367.000000,1.414214
213.000000,368.000000,1.414214
213.000000,406.000000,7.071068
213.000000,407.000000,7.071068
213.000000,408.000000,7.071068
213.000000,409.000000,69.000000
213.000000,413.000000,72.000000
213.000000,414.000000,72.000000
213.000000,415.000000,72.000000
213.000000,485.000000,141.000000
213.000000,486.000000,141.000000
213.000000,487.000000,141.000000
213.000000,488.000000,123.000000
214.000000,340.000000,26.019224
214.000000,341.000000,26.019224
214.000000,342.000000,26.019224
214.000000,343.000000,26.019224
214.000000,344.000000,63.007936
214.000000,345.000000,63.007936
214.000000,364.000000,45.011110
214.000000,365.000000,120.004167
214.000000,366.000000,120.004167
214.000000,394.000000,93.005376
214.000000,395.000000,93.005376
214.000000,396.000000,56.000000
214.000000,406.000000,65.000000
214.000000,407.000000,65.000000
214.000000,408.000000,65.000000
214.000000,409.000000,65.000000
214.000000,410.000000,65.000000
214.000000,411.000000,65.000000
214.000000,412.000000,47.000000
214.000000,413.000000,47.000000
214.000000,414.000000,47.000000
214.000000,415.000000,47.000000
214.000000,485.000000,91.000000
214.000000,486.000000,91.000000
214.000000,487.000000,91.000000
214.000000,488.000000,82.000000
215.000000,340.000000,67.007462
215.000000,341.000000,67.007462
215.000000,342.000000,67.007462
215.000000,343.000000,142.003521
215.000000,344.000000,142.003521
215.000000,345.000000,142.003521
215.000000,364.000000,124.004032
215.000000,365.000000,25.000000
215.000000,366.000000,25.000000
215.000000,394.000000,52.000000
215.000000,395.000000,52.000000
215.000000,396.000000,52.000000
215.000000,406.000000,61.000000
215.000000,407.000000,61.000000
215.000000,408.000000,43.000000
215.000000,409.000000,43.000000
215.000000,410.000000,43.000000
215.000000,411.000000,17.000000
215.000000,412.000000,17.000000
215.000000,413.000000,17.000000
215.000000,414.000000,17.000000
215.000000,415.000000,9.000000
216.000000,138.000000,269.001859
216.000000,139.000000,269.001859
216.000000,140.000000,269.001859
216.000000,141.000000,269.001859
216.000000,340.000000,71.007042
216.000000,341.000000,71.007042
216.000000,342.000000,71.007042
216.000000,343.000000,71.007042
216.000000,344.000000,71.007042
216.000000,345.000000,71.007042
216.000000,363.000000,122.004098
216.000000,364.000000,122.004098
216.000000,365.000000,122.004098
216.000000,366.000000,122.004098
216.000000,392.000000,254.000000
216.000000,393.000000,254.000000
216.000000,394.000000,254.000000
216.000000,395.000000,254.000000
216.000000,396.000000,55.000000
216.000000,397.000000,55.000000
216.000000,407.000000,64.000000
216.000000,408.000000,64.000000
216.000000,409.000000,64.000000
216.000000,410.000000,46.000000
216.000000,411.000000,46.000000
216.000000,412.000000,46.000000
216.000000,413.000000,46.000000
216.000000,414.000000,20.000000
216.000000,415.000000,20.000000
217.000000,138.000000,258.001938
217.000000,139.000000,258.001938
217.000000,140.000000,266.001880
217.000000,141.000000,266.001880
217.000000,142.000000,266.001880
217.000000,143.000000,266.001880
217.000000,363.000000,47.010637
217.000000,364.000000,47.010637
217.000000,365.000000,47.010637
217.000000,366.000000,47.010637
217.000000,392.000000,22.022716
217.000000,393.000000,22.022716
217.000000,394.000000,22.022716
217.000000,395.000000,257.000000
217.000000,396.000000,257.000000
217.000000,397.000000,257.000000
217.000000,407.000000,266.000000
217.000000,408.000000,266.000000
217.000000,409.000000,266.000000
217.000000,410.000000,46.000000
217.000000,411.000000,46.000000
217.000000,413.000000,47.000000
217.000000,414.000000,47.000000
217.000000,415.000000,20.000000
217.000000,416.000000,20.000000
218.000000,138.000000,259.001930
218.000000,139.000000,268.001866
218.000000,140.000000,268.001866
218.000000,141.000000,268.001866
218.000000,142.000000,268.001866
218.000000,143.000000,268.001866
218.000000,144.000000,268.001866
218.000000,363.000000,50.009999
218.000000,364.000000,50.009999
218.000000,365.000000,50.009999
218.000000,366.000000,50.009999
218.000000,392.000000,254.000000
218.000000,393.000000,254.000000
218.000000,394.000000,254.000000
218.000000,395.000000,254.000000
218.000000,396.000000,254.000000
218.000000,397.000000,254.000000
218.000000,407.000000,263.000000
218.000000,408.000000,44.000000
218.000000,409.000000,44.000000
218.000000,412.000000,46.000000
218.000000,413.000000,46.000000
218.000000,414.000000,19.000000
218.000000,415.000000,19.000000
218.000000,416.000000,19.000000
219.000000,138.000000,269.001859
219.000000,139.000000,269.001859
219.000000,140.000000,269.001859
219.000000,141.000000,269.001859
219.000000,142.000000,269.001859
219.000000,143.000000,269.001859
219.000000,144.000000,270.001852
219.000000,145.000000,270.001852
219.000000,324.000000,92.005435
219.000000,325.000000,187.000000
219.000000,326.000000,187.000000
219.000000,363.000000,223.000000
219.000000,364.000000,223.000000
219.000000,365.000000,223.000000
219.000000,366.000000,223.000000
219.000000,407.000000,263.000000
219.000000,408.000000,263.000000
219.000000,409.000000,84.000000
219.000000,411.000000,85.000000
219.000000,412.000000,85.000000
219.000000,413.000000,49.000000
219.000000,414.000000,49.000000
219.000000,415.000000,49.000000
219.000000,416.000000,49.000000
220.000000,140.000000,255.001961
220.000000,141.000000,255.001961
220.000000,142.000000,255.001961
220.000000,143.000000,264.001894
220.000000,144.000000,264.001894
220.000000,145.000000,264.001894
220.000000,146.000000,264.001894
220.000000,163.000000,248.002016
220.000000,164.000000,248.002016
220.000000,165.000000,248.002016
220.000000,307.000000,107.004673
220.000000,308.000000,107.004673
220.000000,309.000000,107.004673
220.000000,323.000000,94.005319
220.000000,324.000000,183.000000
220.000000,325.000000,183.000000
220.000000,326.000000,183.000000
220.000000,327.000000,183.000000
220.000000,328.000000,183.000000
220.000000,410.000000,264.000000
220.000000,411.000000,248.000000
220.000000,412.000000,248.000000
220.000000,413.000000,248.000000
220.000000,414.000000,248.000000
220.000000,415.000000,108.000000
220.000000,416.000000,108.000000
221.000000,141.000000,168.002976
221.000000,142.000000,182.002747
221.000000,143.000000,182.002747
221.000000,144.000000,182.002747
221.000000,145.000000,182.002747
221.000000,146.000000,182.002747
221.000000,147.000000,182.002747
221.000000,163.000000,201.002488
221.000000,164.000000,201.002488
221.000000,165.000000,201.002488
221.000000,166.000000,241.002075
221.000000,306.000000,102.004902
221.000000,307.000000,102.004902
221.000000,308.000000,103.004854
221.000000,309.000000,103.004854
221.000000,323.000000,90.005555
221.000000,324.000000,90.005555
221.000000,325.000000,90.005555
221.000000,326.000000,90.005555
221.000000,327.000000,90.005555
221.000000,328.000000,186.000000
221.000000,329.000000,186.000000
221.000000,330.000000,186.000000
221.000000,403.000000,258.000000
221.000000,404.000000,258.000000
221.000000,405.000000,258.000000
221.000000,406.000000,243.000000
221.000000,407.000000,243.000000
221.000000,408.000000,243.000000
221.000000,410.000000,244.000000
221.000000,411.000000,244.000000
221.000000,412.000000,105.000000
221.000000,413.000000,105.000000
221.000000,414.000000,105.000000
222.000000,142.000000,182.002747
222.000000,143.000000,182.002747
222.000000,144.000000,182.002747
222.000000,145.000000,182.002747
222.000000,146.000000,182.002747
222.000000,147.000000,182.002747
222.000000,163.000000,167.002994
222.000000,164.000000,246.002033
222.000000,165.000000,246.002033
222.000000,166.000000,246.002033
222.000000,167.000000,246.002033
222.000000,306.000000,108.004630
222.000000,307.000000,108.004630
222.000000,308.000000,108.004630
222.000000,309.000000,108.004630
222.000000,323.000000,180.000000
222.000000,324.000000,180.000000
222.000000,325.000000,180.000000
222.000000,326.000000,180.000000
222.000000,327.000000,180.000000
222.000000,328.000000,165.000000
222.000000,329.000000,165.000000
222.000000,330.000000,165.000000
222.000000,403.000000,237.000000
222.000000,404.000000,237.000000
222.000000,405.000000,99.000000
222.000000,406.000000,99.000000
222.000000,407.000000,99.000000
222.000000,408.000000,99.000000
222.000000,409.000000,85.000000
222.000000,410.000000,85.000000
222.000000,411.000000,85.000000
222.000000,412.000000,85.000000
222.000000,413.000000,85.000000
222.000000,414.000000,85.000000
223.000000,143.000000,187.002674
223.000000,144.000000,187.002674
223.000000,145.000000,259.001930
223.000000,146.000000,259.001930
223.000000,147.000000,259.001930
223.000000,163.000000,244.002049
223.000000,164.000000,244.002049
223.000000,165.000000,245.002041
223.000000,166.000000,245.002041
223.000000,167.000000,245.002041
223.000000,168.000000,245.002041
223.000000,306.000000,108.004630
223.000000,307.000000,108.004630
223.000000,308.000000,165.000000
223.000000,309.000000,165.000000
223.000000,326.000000,181.000000
223.000000,327.000000,181.000000
223.000000,328.000000,181.000000
